Long Lat Depth
-118.668889838239977 33.7900002703200073 -882
-118.668612060459992 33.7900002703200073 -881
-118.668334282679979 33.7900002703200073 -880
-118.668056504899994 33.7900002703200073 -880
-118.66777872711998 33.7900002703200073 -879
-118.667500949339995 33.7900002703200073 -879
-118.667223171559982 33.7900002703200073 -878
-118.666945393779997 33.7900002703200073 -877
-118.666667615999984 33.7900002703200073 -877
-118.666389838219999 33.7900002703200073 -877
-118.666112060439985 33.7900002703200073 -876
-118.668889838239977 33.7897224925400081 -881
-118.668612060459992 33.7897224925400081 -880
-118.668334282679979 33.7897224925400081 -879
-118.668056504899994 33.7897224925400081 -878
-118.66777872711998 33.7897224925400081 -878
-118.667500949339995 33.7897224925400081 -877
-118.667223171559982 33.7897224925400081 -877
-118.666945393779997 33.7897224925400081 -877
-118.666667615999984 33.7897224925400081 -877
-118.666389838219999 33.7897224925400081 -876
-118.666112060439985 33.7897224925400081 -876
-118.668889838239977 33.789444714760009 -880
-118.668612060459992 33.789444714760009 -878
-118.668334282679979 33.789444714760009 -877
-118.668056504899994 33.789444714760009 -876
-118.66777872711998 33.789444714760009 -875
-118.667500949339995 33.789444714760009 -875
-118.667223171559982 33.789444714760009 -876
-118.666945393779997 33.789444714760009 -876
-118.666667615999984 33.789444714760009 -876
-118.666389838219999 33.789444714760009 -876
-118.666112060439985 33.789444714760009 -876
-118.668889838239977 33.7891669369800027 -878
-118.668612060459992 33.7891669369800027 -877
-118.668334282679979 33.7891669369800027 -874
-118.668056504899994 33.7891669369800027 -872
-118.66777872711998 33.7891669369800027 -872
-118.667500949339995 33.7891669369800027 -874
-118.667223171559982 33.7891669369800027 -875
-118.666945393779997 33.7891669369800027 -875
-118.666667615999984 33.7891669369800027 -875
-118.666389838219999 33.7891669369800027 -875
-118.666112060439985 33.7891669369800027 -875
-118.668889838239977 33.7888891592000036 -877
-118.668612060459992 33.7888891592000036 -875
-118.668334282679979 33.7888891592000036 -872
-118.668056504899994 33.7888891592000036 -869
-118.66777872711998 33.7888891592000036 -868
-118.667500949339995 33.7888891592000036 -871
-118.667223171559982 33.7888891592000036 -873
-118.666945393779997 33.7888891592000036 -874
-118.666667615999984 33.7888891592000036 -875
-118.666389838219999 33.7888891592000036 -875
-118.666112060439985 33.7888891592000036 -875
-118.668889838239977 33.7886113814200044 -876
-118.668612060459992 33.7886113814200044 -874
-118.668334282679979 33.7886113814200044 -871
-118.668056504899994 33.7886113814200044 -867
-118.66777872711998 33.7886113814200044 -866
-118.667500949339995 33.7886113814200044 -868
-118.667223171559982 33.7886113814200044 -871
-118.666945393779997 33.7886113814200044 -874
-118.666667615999984 33.7886113814200044 -875
-118.666389838219999 33.7886113814200044 -875
-118.666112060439985 33.7886113814200044 -875
-118.668889838239977 33.7883336036400053 -877
-118.668612060459992 33.7883336036400053 -876
-118.668334282679979 33.7883336036400053 -874
-118.668056504899994 33.7883336036400053 -870
-118.66777872711998 33.7883336036400053 -869
-118.667500949339995 33.7883336036400053 -870
-118.667223171559982 33.7883336036400053 -872
-118.666945393779997 33.7883336036400053 -875
-118.666667615999984 33.7883336036400053 -876
-118.666389838219999 33.7883336036400053 -877
-118.666112060439985 33.7883336036400053 -877
-118.668889838239977 33.7880558258600061 -877
-118.668612060459992 33.7880558258600061 -877
-118.668334282679979 33.7880558258600061 -876
-118.668056504899994 33.7880558258600061 -874
-118.66777872711998 33.7880558258600061 -874
-118.667500949339995 33.7880558258600061 -874
-118.667223171559982 33.7880558258600061 -875
-118.666945393779997 33.7880558258600061 -877
-118.666667615999984 33.7880558258600061 -877
-118.666389838219999 33.7880558258600061 -878
-118.666112060439985 33.7880558258600061 -878
